# .PCD v0.7 - Point Cloud Data file format
VERSION 0.7
FIELDS x y z intensity ring
SIZE 4 4 4 4 2
TYPE F F F F U
COUNT 1 1 1 1 1
WIDTH 1292
HEIGHT 1
VIEWPOINT 0 0 0 1 0 0 0
POINTS 1292
DATA ascii
2.3290491 -0.57853866 -0.66210562 3 1
2.3245325 -0.5759263 -0.66072255 3 1
2.3297465 -0.57572412 -0.66210562 3 1
2.3252268 -0.5731166 -0.66072255 3 1
2.3353174 -0.57410771 -0.66349125 3 1
2.3307862 -0.57150042 -0.66210562 3 1
2.3360095 -0.57128555 -0.66349125 3 1
2.3192904 -0.56571239 -0.65864545 3 1
2.3245118 -0.56549805 -0.66003108 3 1
2.3248532 -0.56409329 -0.66003108 3 1
2.3300657 -0.56386733 -0.66141403 3 1
2.3352883 -0.56363827 -0.66279978 3 1
2.3209889 -0.55870366 -0.65864545 3 1
2.3310838 -0.55964375 -0.66141403 3 1
2.328984 -0.557652 -0.66072255 3 1
2.3219976 -0.55449587 -0.65864545 3 1
2.3296561 -0.55483693 -0.66072255 3 1
2.3299909 -0.55342966 -0.66072255 3 1
2.3327637 -0.55259937 -0.66141403 3 1
2.3233309 -0.54888296 -0.65864545 3 1
2.3334298 -0.54978031 -0.66141403 3 1
2.3337615 -0.54837084 -0.66141403 3 1
2.3316522 -0.54638869 -0.66072255 3 1
2.3246505 -0.54326636 -0.65864545 3 1
2.3319819 -0.54497963 -0.66072255 3 1
2.3371925 -0.54470879 -0.66210562 3 1
2.3399718 -0.54386663 -0.66279978 3 1
2.3329656 -0.54075253 -0.66072255 3 1
2.3430693 -0.54160267 -0.66349125 3 1
2.3385022 -0.53905863 -0.66210562 3 1
2.3339419 -0.53652304 -0.66072255 3 1
2.3269272 -0.53343093 -0.65864545 3 1
2.3272491 -0.53202474 -0.65864545 3 1
2.339798 -0.53340656 -0.66210562 3 1
2.318105 -0.52698785 -0.65587682 3 1
nan nan nan 255 1
2.3285279 -0.52639925 -0.65864545 3 1
2.3288455 -0.52499211 -0.65864545 4 1
2.3169265 -0.5208348 -0.65518528 3 1
2.3196862 -0.51998287 -0.65587682 3 1
2.3297932 -0.52077073 -0.65864545 3 1
2.3203127 -0.51717967 -0.65587682 3 1
2.3206248 -0.51577747 -0.65587682 3 1
2.3356366 -0.51763374 -0.66003108 4 1
2.3310449 -0.51513916 -0.65864545 3 1
2.3289082 -0.51319116 -0.65795398 3 1
2.3292179 -0.51178378 -0.65795398 3 1
2.3172758 -0.5076921 -0.65449381 3 1
2.3298347 -0.50896907 -0.65795398 3 1
2.3252437 -0.50649482 -0.65657091 3 1
2.3328969 -0.50668555 -0.65864545 3 1
2.3307531 -0.5047459 -0.65795398 3 1
2.3310578 -0.50333744 -0.65795398 3 1
2.3313615 -0.50192875 -0.65795398 3 1
2.3341148 -0.50104648 -0.65864545 4 1
2.324604 -0.49753574 -0.65587682 3 1
2.3322673 -0.49770284 -0.65795398 3 1
2.3325675 -0.49629405 -0.65795398 3 1
2.3328669 -0.49488443 -0.65795398 4 1
2.3331656 -0.49347466 -0.65795398 3 1
2.3285584 -0.49103042 -0.65657091 3 1
2.33376 -0.49065518 -0.65795398 3 1
2.3340559 -0.4892455 -0.65795398 3 1
2.3245285 -0.48578224 -0.65518528 3 1
2.3297381 -0.4854019 -0.65657091 3 1
2.3349392 -0.48501348 -0.65795398 3 1
2.3376858 -0.48411134 -0.65864545 3 1
2.32815 -0.48067021 -0.65587682 3 1
2.3358142 -0.48078117 -0.65795398 3 1
2.3311939 -0.47836259 -0.65657091 3 1
2.3241065 -0.47544491 -0.65449381 4 1
2.3366818 -0.47654659 -0.65795398 3 1
2.3468032 -0.47713447 -0.66072255 4 1
2.3397121 -0.47422075 -0.65864545 3 1
2.3399982 -0.47280747 -0.65864545 3 1
2.3329124 -0.46990928 -0.65657091 3 1
2.3307292 -0.46800417 -0.65587682 3 1
2.3383939 -0.46807343 -0.65795398 3 1
2.3386765 -0.46666029 -0.65795398 3 1
2.3389578 -0.46524763 -0.65795398 3 1
2.3466229 -0.4652991 -0.66003108 3 1
2.3346004 -0.46144921 -0.65657091 3 1
2.3397973 -0.46100739 -0.65795398 3 1
2.3400753 -0.45959345 -0.65795398 3 1
2.3403525 -0.45817995 -0.65795398 3 1
2.3307796 -0.45484424 -0.65518528 3 1
2.3359838 -0.45439467 -0.65657091 3 1
2.3288667 -0.45155054 -0.65449381 3 1
2.3365312 -0.45157185 -0.65657091 3 1
2.3417258 -0.45110807 -0.65795398 3 1
2.3395364 -0.44922093 -0.65726244 3 1
2.3422692 -0.44827831 -0.65795398 3 1
2.3302202 -0.44451338 -0.65449381 3 1
2.3354127 -0.44404218 -0.65587682 3 1
2.3381529 -0.44309932 -0.65657091 3 1
2.3458083 -0.44308192 -0.65864545 3 1
2.3362138 -0.4398078 -0.65587682 3 1
2.3389521 -0.4388606 -0.65657091 3 1
2.3392167 -0.43744779 -0.65657091 3 1
2.3444085 -0.43695265 -0.65795398 3 1
2.33727 -0.43416092 -0.65587682 3 1
2.3375318 -0.4327485 -0.65587682 3 1
2.3377929 -0.43133655 -0.65587682 3 1
2.335588 -0.42947114 -0.65518528 3 1
2.3407872 -0.42896506 -0.65657091 3 1
2.3459768 -0.42845175 -0.65795398 3 1
2.3363626 -0.42523709 -0.65518528 3 1
2.3366191 -0.4238252 -0.65518528 3 1
2.3467498 -0.42419881 -0.65795398 3 1
2.339596 -0.42144597 -0.65587682 3 1
2.3470056 -0.42278069 -0.65795398 3 1
2.3376365 -0.41817805 -0.65518528 3 1
2.3376365 -0.41817805 -0.65518528 3 1
2.3403559 -0.41720527 -0.65587682 3 1
2.3504879 -0.41754615 -0.65864545 3 1
2.3408585 -0.41437653 -0.65587682 3 1
2.3312256 -0.4112193 -0.65310812 3 1
2.3413572 -0.41154844 -0.65587682 3 1
2.3440838 -0.41056761 -0.65657091 3 1
2.3443315 -0.40915108 -0.65657091 3 1
2.3371608 -0.40644512 -0.65449381 3 1
2.3472936 -0.40674609 -0.65726244 3 1
2.3450694 -0.40490186 -0.65657091 3 1
2.3378937 -0.40220824 -0.65449381 3 1
2.3455567 -0.40206808 -0.65657091 3 1
2.338378 -0.3993831 -0.65449381 3 1
2.3361478 -0.39754951 -0.65380228 3 1
2.3363876 -0.39613843 -0.65380228 3 1
2.3539357 -0.39765054 -0.65864545 3 1
2.3442795 -0.39456311 -0.65587682 3 1
2.3371017 -0.39190358 -0.65380228 3 1
2.3348563 -0.39007667 -0.65310812 3 1
2.3474727 -0.39072645 -0.65657091 3 1
2.3427536 -0.3884863 -0.65518528 3 1
2.342988 -0.38707119 -0.65518528 3 1
2.338275 -0.38484183 -0.65380228 3 1
2.3434539 -0.38423991 -0.65518528 3 1
2.3461592 -0.38322777 -0.65587682 3 1
2.3463902 -0.38181064 -0.65587682 3 1
2.3466206 -0.3803927 -0.65587682 3 1
2.3468499 -0.37897524 -0.65587682 3 1
2.3495624 -0.37795666 -0.65657091 3 1
2.3497903 -0.37653747 -0.65657091 3 1
2.3574424 -0.37630269 -0.65864545 3 1
2.3452837 -0.37290871 -0.65518528 3 1
2.3479841 -0.37188414 -0.65587682 3 1
2.3506937 -0.37085733 -0.65657091 3 1
2.3509171 -0.36943743 -0.65657091 3 1
2.3461781 -0.36724076 -0.65518528 3 1
2.3439229 -0.36543685 -0.65449381 3 1
2.3466201 -0.36440504 -0.65518528 3 1
2.3518031 -0.36375463 -0.65657091 3 1
2.3495357 -0.36195099 -0.65587682 3 1
2.344799 -0.35977155 -0.65449381 3 1
2.3499713 -0.35911185 -0.65587682 3 1
2.3526752 -0.35807091 -0.65657091 3 1
2.352891 -0.35664925 -0.65657091 3 1
2.3481402 -0.3544777 -0.65518528 3 1
2.3533204 -0.35380599 -0.65657091 3 1
2.3535335 -0.35238391 -0.65657091 3 1
2.3537462 -0.35096228 -0.65657091 3 1
2.351469 -0.34917036 -0.65587682 3 1
2.3516796 -0.34774941 -0.65587682 3 1
2.3543782 -0.34669542 -0.65657091 3 1
2.352098 -0.34490764 -0.65587682 3 1
2.3547957 -0.34385043 -0.65657091 3 1
2.3525131 -0.34206605 -0.65587682 3 1
2.3527191 -0.34064442 -0.65587682 3 1
2.3479631 -0.33850735 -0.65449381 3 1
2.3506484 -0.33744466 -0.65518528 3 1
2.3533328 -0.33637944 -0.65587682 3 1
2.3535357 -0.33495796 -0.65587682 3 1
2.3537376 -0.3335357 -0.65587682 3 1
2.3514569 -0.33176383 -0.65518528 3 1
2.3541389 -0.33069149 -0.65587682 3 1
2.3493738 -0.3285746 -0.65449381 3 1
2.3495719 -0.32715553 -0.65449381 3 1
2.3522518 -0.32607985 -0.65518528 3 1
2.3499653 -0.32431635 -0.65449381 3 1
2.3551271 -0.32357857 -0.65587682 3 1
2.352839 -0.32181576 -0.65518528 3 1
2.3555162 -0.32073268 -0.65587682 3 1
2.3532262 -0.31897262 -0.65518528 3 1
2.3534184 -0.31755123 -0.65518528 3 1
2.3536098 -0.31612968 -0.65518528 3 1
2.3488317 -0.31404307 -0.65380228 3 1
2.3539901 -0.31328502 -0.65518528 3 1
2.3492093 -0.31120479 -0.65380228 3 1
2.3568516 -0.31076816 -0.65587682 3 1
2.3520687 -0.30869225 -0.65449381 3 1
2.3595335 -0.30967194 -0.65657091 3 1
2.3522549 -0.30727088 -0.65449381 3 1
2.3574109 -0.30649635 -0.65587682 3 1
2.3551102 -0.30475017 -0.65518528 3 1
2.3577797 -0.30364713 -0.65587682 3 1
2.3604581 -0.30254281 -0.65657091 3 1
2.3506861 -0.29984662 -0.65380228 3 1
2.3533533 -0.29874238 -0.65449381 3 1
2.3535333 -0.29732025 -0.65449381 3 1
2.3537126 -0.29589805 -0.65449381 3 1
2.3514037 -0.29416519 -0.65380228 3 1
2.3540683 -0.2930539 -0.65449381 3 1
2.3592198 -0.29224822 -0.65587682 3 1
2.351933 -0.28990331 -0.65380228 3 1
2.3521078 -0.28848207 -0.65380228 3 1
2.3622432 -0.28827634 -0.65657091 3 1
2.3574309 -0.28624409 -0.65518528 3 1
2.3551152 -0.2845189 -0.65449381 3 1
2.3602633 -0.28369457 -0.65587682 3 1
2.3554573 -0.28167307 -0.65449381 3 1
2.3606045 -0.28084248 -0.65587682 3 1
2.358285 -0.27912143 -0.65518528 3 1
2.363441 -0.27828363 -0.65657091 3 1
2.3586206 -0.27627176 -0.65518528 3 1
2.3538077 -0.27426627 -0.65380228 3 1
2.3564627 -0.2731331 -0.65449381 3 1
2.3591173 -0.2719962 -0.65518528 3 1
2.354301 -0.26999944 -0.65380228 3 1
2.3619344 -0.26942956 -0.65587682 3 1
2.3596065 -0.26771975 -0.65518528 3 1
2.3672488 -0.26713869 -0.65726244 3 1
2.3624189 -0.26514864 -0.65587682 3 1
2.3650792 -0.26400018 -0.65657091 3 1
2.3702204 -0.26312405 -0.65795398 3 1
2.3628955 -0.26086622 -0.65587682 3 1
2.3580699 -0.25889128 -0.65449381 3 1
2.3607175 -0.25773901 -0.65518528 3 1
2.3658657 -0.2568545 -0.65657091 3 1
2.3585353 -0.25461736 -0.65449381 3 1
2.3636727 -0.25372717 -0.65587682 3 1
2.3613336 -0.25203282 -0.65518528 3 1
2.351506 -0.2495475 -0.65241665 3 1
2.3591437 -0.24891648 -0.65449381 3 1
2.3717666 -0.24879995 -0.65795398 3 1
2.366931 -0.24684675 -0.65657091 3 1
2.3645771 -0.24515696 -0.65587682 3 1
2.3597383 -0.24321477 -0.65449381 3 1
2.3648713 -0.24230035 -0.65587682 3 1
2.3550339 -0.23985447 -0.65310812 3 1
2.3651624 -0.23944277 -0.65587682 3 1
2.3653069 -0.23801352 -0.65587682 3 1
2.3629563 -0.23633477 -0.65518528 3 1
2.3606045 -0.23465955 -0.65449381 3 1
2.3657343 -0.23372589 -0.65587682 3 1
2.3608863 -0.23180713 -0.65449381 3 1
2.3635206 -0.23062389 -0.65518528 3 1
2.3636594 -0.22919624 -0.65518528 3 1
2.3687966 -0.22824964 -0.65657091 3 1
2.3664296 -0.22657838 -0.65587682 3 1
2.3740609 -0.22586204 -0.65795398 3 1
2.3642063 -0.22348306 -0.65518528 3 1
2.3668363 -0.22228937 -0.65587682 3 1
2.3644745 -0.22062691 -0.65518528 3 1
2.3646076 -0.21919808 -0.65518528 3 1
2.3622437 -0.21753931 -0.65449381 3 1
2.3623745 -0.21611246 -0.65449381 3 1
2.3625047 -0.2146849 -0.65449381 3 1
2.3626339 -0.21325792 -0.65449381 3 1
2.3752539 -0.21295011 -0.65795398 3 1
2.3627625 -0.2118302 -0.65449381 3 1
2.3653865 -0.21062472 -0.65518528 3 1
2.3705163 -0.2096384 -0.65657091 3 1
2.3681359 -0.2079858 -0.65587682 3 1
2.3732646 -0.20699178 -0.65726244 3 1
2.3658886 -0.20490804 -0.65518528 3 1
2.3610175 -0.20304947 -0.65380228 3 1
2.3636372 -0.20183599 -0.65449381 3 1
2.3587542 -0.19998336 -0.65310812 3 1
2.3688743 -0.19940038 -0.65587682 3 1
2.3615012 -0.19734336 -0.65380228 3 1
2.3616202 -0.19591632 -0.65380228 3 1
2.3592305 -0.19428338 -0.65310812 3 1
2.3593473 -0.19285771 -0.65310812 3 1
2.3619714 -0.19163546 -0.65380228 3 1
2.3695817 -0.19081232 -0.65587682 3 1
2.3596931 -0.18858097 -0.65310812 3 1
2.367312 -0.18775094 -0.65518528 3 1
2.3599191 -0.18572968 -0.65310812 3 1
2.3700359 -0.18508492 -0.65587682 3 1
2.3701472 -0.18365338 -0.65587682 3 1
2.357753 -0.18125981 -0.65241665 3 1
2.3703675 -0.18078946 -0.65587682 3 1
2.3629785 -0.17878976 -0.65380228 3 1
2.3655853 -0.17755008 -0.65449381 3 1
2.3631928 -0.17593451 -0.65380228 3 1
2.3632984 -0.17450647 -0.65380228 3 1
2.3659034 -0.17326204 -0.65449381 3 1
2.3609984 -0.1714692 -0.65310812 3 1
2.3586016 -0.16986243 -0.65241665 3 1
2.3687136 -0.16915262 -0.65518528 3 1
2.3613052 -0.16718948 -0.65310812 3 1
2.3614058 -0.16576259 -0.65310812 3 1
2.3665159 -0.16468495 -0.65449381 3 1
2.3666148 -0.1632549 -0.65449381 3 1
2.3717141 -0.16216737 -0.65587682 3 1
2.3718119 -0.16073418 -0.65587682 3 1
2.3719084 -0.15930092 -0.65587682 3 1
2.3795164 -0.15836823 -0.65795398 3 1
2.3720992 -0.15643489 -0.65587682 3 1
2.3721931 -0.1550021 -0.65587682 3 1
2.3647828 -0.15308289 -0.65380228 3 1
2.3698778 -0.15197533 -0.65518528 3 1
2.3749814 -0.15086165 -0.65657091 3 1
2.375072 -0.14942648 -0.65657091 2 1
2.3676476 -0.14752372 -0.65449381 3 1
2.3677363 -0.14609361 -0.65449381 3 1
2.370326 -0.14481567 -0.65518528 3 1
2.3754261 -0.14368719 -0.65657091 3 1
2.3755126 -0.14225177 -0.65657091 3 1
2.375598 -0.14081629 -0.65657091 3 1
2.3756826 -0.13938138 -0.65657091 3 1
2.3807707 -0.13823639 -0.65795398 3 1
2.3808539 -0.13679835 -0.65795398 3 1
2.3759315 -0.13507512 -0.65657091 3 1
2.3810174 -0.13392091 -0.65795398 3 1
2.3735807 -0.13206448 -0.65587682 3 1
2.3761723 -0.13076842 -0.65657091 2 1
2.3762507 -0.12933318 -0.65657091 2 1
2.3813341 -0.1281673 -0.65795398 3 1
2.3814111 -0.1267283 -0.65795398 3 1
2.3764813 -0.1250259 -0.65657091 2 1
2.371541 -0.12332901 -0.65518528 2 1
2.3741181 -0.12202521 -0.65587682 2 1
2.376704 -0.12071884 -0.65657091 2 1
2.3692572 -0.11890528 -0.65449381 2 1
2.361809 -0.11710139 -0.65241665 2 1
2.3668957 -0.11591987 -0.65380228 2 1
2.3644521 -0.11436804 -0.65310812 2 1
2.3670342 -0.11305991 -0.65380228 2 1
2.3570783 -0.11115687 -0.65103364 2 1
2.3571451 -0.10973315 -0.65103364 2 1
2.3622181 -0.10853885 -0.65241665 2 1
2.3522584 -0.10665687 -0.64964795 2 1
2.3673646 -0.10590902 -0.65380228 2 1
2.3574033 -0.10403604 -0.65103364 2 1
2.3499441 -0.10228476 -0.64895648 2 1
2.3624735 -0.10283012 -0.65241665 2 1
2.3575273 -0.10118821 -0.65103364 2 1
2.3576479 -0.098338962 -0.65103364 2 1
2.360152 -0.098443404 -0.65172517 2 1
2.3602109 -0.097017214 -0.65172517 2 1
2.357765 -0.095490202 -0.65103364 2 1
2.3603263 -0.094165996 -0.65172517 2 1
2.3603828 -0.092739701 -0.65172517 2 1
2.3604383 -0.091313995 -0.65172517 2 1
2.3629978 -0.089983009 -0.65241665 2 1
2.3580427 -0.088367388 -0.65103364 2 1
2.3580956 -0.086943097 -0.65103364 2 1
2.3706808 -0.085972667 -0.65449381 2 1
2.3632083 -0.084272437 -0.65241665 2 1
2.3657634 -0.082932204 -0.65310812 2 1
2.3557842 -0.081157759 -0.65033954 2 1
2.3583474 -0.079819322 -0.65103364 2 1
2.363405 -0.078560755 -0.65241665 2 1
2.363452 -0.077133231 -0.65241665 2 1
2.366003 -0.07578592 -0.65310812 2 1
2.3660483 -0.074356198 -0.65310812 1 1
2.3686078 -0.073003963 -0.65380228 2 1
2.3661366 -0.071496673 -0.65310812 1 1
2.3686943 -0.070141979 -0.65380228 2 1
2.3612108 -0.068492964 -0.65172517 1 1
2.3562317 -0.066923551 -0.65033954 2 1
2.3713231 -0.065918766 -0.65449381 2 1
2.3638365 -0.064281173 -0.65241665 2 1
2.3688955 -0.062986255 -0.65380228 2 1
2.3739443 -0.061685637 -0.65518528 2 1
2.3639491 -0.059996508 -0.65241665 2 1
2.3664904 -0.058630731 -0.65310812 2 1
2.3740523 -0.057382651 -0.65518528 2 1
2.3590429 -0.05559418 -0.65103364 2 1
2.3540547 -0.054053366 -0.64964795 2 1
2.3641195 -0.052855175 -0.65241665 2 1
2.3616455 -0.051372714 -0.65172517 2 1
2.3666873 -0.050052244 -0.65310812 2 1
2.3592 -0.048467681 -0.65103364 2 1
2.3667462 -0.047191966 -0.65310812 2 1
2.3642685 -0.04571335 -0.65241665 1 1
2.3668015 -0.044332251 -0.65310812 1 1
2.3668277 -0.042902682 -0.65310812 1 1
2.3693688 -0.04151655 -0.65380228 1 1
2.3693936 -0.040085435 -0.65380228 1 1
2.3694174 -0.038653668 -0.65380228 1 1
2.3594067 -0.037064269 -0.65103364 1 1
2.3719685 -0.035828583 -0.65449381 1 1
2.377002 -0.034467947 -0.65587682 1 1
2.3569541 -0.032753345 -0.65033954 1 1
2.3695233 -0.03149654 -0.65380228 1 1
2.356992 -0.02990547 -0.65033954 1 1
2.372066 -0.028663134 -0.65449381 1 1
2.3695765 -0.027200986 -0.65380228 1 1
2.3620644 -0.025687877 -0.65172517 1 1
2.3721139 -0.02436424 -0.65449381 1 1
2.3746347 -0.022955062 -0.65518528 1 1
2.3671193 -0.021451907 -0.65310812 1 1
2.3721542 -0.020064002 -0.65449381 1 1
2.3621314 -0.018552389 -0.65172517 1 1
2.3721766 -0.017198402 -0.65449381 1 1
2.3721869 -0.015764959 -0.65449381 1 1
2.3596547 -0.014256376 -0.65103364 1 1
2.3772168 -0.012925948 -0.65587682 1 1
2.3671889 -0.011440962 -0.65310812 1 1
2.3697114 -0.010021807 -0.65380228 1 1
2.3621886 -0.0085625658 -0.65172517 1 1
2.3621933 -0.0071357912 -0.65172517 1 1
2.3697257 -0.0057272082 -0.65380228 1 1
2.3647063 -0.0042861472 -0.65241665 1 1
2.3647087 -0.0028572222 -0.65241665 1 1
2.3772514 -0.0014358717 -0.65587682 1 1
2.3647103 0 -0.65241665 1 1
2.3672161 0.0014298104 -0.65310812 1 1
2.3622024 0.002854194 -0.65172517 1 1
2.3622 0.0042816047 -0.65172517 1 1
2.3672097 0.0057211276 -0.65310812 1 1
2.3646994 0.007143362 -0.65241665 1 1
2.3621886 0.0085625658 -0.65172517 1 1
2.3671954 0.010010535 -0.65310812 1 1
2.3646891 0.0099999364 -0.65241665 1 1
2.3722115 0.011465867 -0.65449381 1 1
2.3722041 0.012898692 -0.65449381 1 1
2.3696895 0.014317002 -0.65380228 1 1
2.3696804 0.015748302 -0.65380228 1 1
2.3646481 0.01714319 -0.65241665 1 1
2.3696597 0.018612148 -0.65380228 1 1
2.369648 0.020043435 -0.65380228 1 1
2.3721416 0.021497423 -0.65449381 1 1
2.3645999 0.022858057 -0.65241665 1 1
2.3771265 0.024415091 -0.65587682 1 1
2.3695924 0.025769116 -0.65380228 1 1
2.3695765 0.027201617 -0.65380228 1 1
2.3545034 0.028450916 -0.64964795 1 1
2.3795764 0.030192019 -0.65657091 1 1
2.3720295 0.031529222 -0.65449381 1 1
2.3644819 0.032857325 -0.65241665 1 1
2.374496 0.03443224 -0.65518528 1 1
2.3744748 0.035866439 -0.65518528 1 1
2.3719463 0.037261259 -0.65449381 1 1
2.3694174 0.038653668 -0.65380228 1 1
2.3718998 0.040127199 -0.65449381 1 1
2.3768871 0.041648917 -0.65587682 1 1
2.3693433 0.042948283 -0.65380228 1 1
2.3617899 0.044238377 -0.65172517 1 1
2.3667743 0.045761798 -0.65310812 1 1
2.3567133 0.046991918 -0.65033954 1 1
2.379266 0.048879918 -0.65657091 1 1
2.361676 0.04994626 -0.65172517 1 1
2.3691721 0.051536445 -0.65380228 1 1
2.3591084 0.052743137 -0.65103364 1 1
2.371614 0.054456558 -0.65449381 1 1
2.3715806 0.055889651 -0.65449381 1 1
2.3715465 0.057322085 -0.65449381 1 1
2.358974 0.058444507 -0.65103364 1 1
2.3639491 0.059996508 -0.65241665 1 1
2.3639123 0.061424334 -0.65241665 1 1
2.3688955 0.062986888 -0.65380228 1 1
2.373868 0.064553969 -0.65518528 1 1
2.3663025 0.065779202 -0.65310812 1 1
2.3712828 0.067351051 -0.65449381 1 1
2.3687363 0.068710625 -0.65380228 1 1
2.3636742 0.069992691 -0.65241665 1 1
2.3836927 0.072027788 -0.65795398 1 1
2.3535576 0.072540089 -0.64964795 1 1
2.3635435 0.074277475 -0.65241665 1 1
2.3609931 0.075624809 -0.65172517 1 1
2.3709769 0.077378184 -0.65449381 1 1
2.3558807 0.078311272 -0.65033954 1 1
2.3558328 0.079734221 -0.65033954 1 1
2.3633084 0.081416972 -0.65241665 1 1
2.368278 0.083020352 -0.65380228 1 1
2.3682272 0.084450796 -0.65380228 1 1
2.3681757 0.085882455 -0.65380228 1 1
2.3781519 0.087682582 -0.65657091 1 1
2.3780987 0.089118987 -0.65657091 0 1
2.3780444 0.090555981 -0.65657091 1 1
2.3629429 0.091410249 -0.65241665 1 1
2.3578784 0.092641927 -0.65103364 1 1
2.3502994 0.093765967 -0.64895648 1 1
2.3627732 0.095693044 -0.65241665 1 1
2.375246 0.097635239 -0.65587682 1 1
2.360152 0.098443404 -0.65172517 0 1
2.3751264 0.10050575 -0.65587682 1 1
2.3575273 0.10118821 -0.65103364 0 1
2.367491 0.10304851 -0.65380228 0 1
2.3824618 0.10514191 -0.65795398 0 1
2.3573401 0.10545992 -0.65103364 0 1
2.3647869 0.10722556 -0.65310812 0 1
2.3847709 0.10957511 -0.65864545 0 1
2.3696728 0.11031636 -0.65449381 0 1
2.3721094 0.11186571 -0.65518528 0 1
2.3745449 0.11341803 -0.65587682 0 1
2.3669653 0.11449023 -0.65380228 0 1
2.384429 0.11677857 -0.65864545 0 1
2.3818548 0.11809527 -0.65795398 0 1
2.3767765 0.11928266 -0.65657091 0 1
2.369185 0.12033629 -0.65449381 0 1
2.3741913 0.12059058 -0.65587682 0 1
2.3766308 0.12215373 -0.65657091 0 1
2.3590164 0.12267832 -0.65172517 0 1
2.3589418 0.12410314 -0.65172517 0 1
2.3638718 0.12579493 -0.65310812 0 1
2.3637955 0.1272227 -0.65310812 0 1
2.3737385 0.12919581 -0.65587682 0 1
2.366152 0.13021761 -0.65380228 0 1
2.3660731 0.13164675 -0.65380228 0 1
2.363481 0.13293457 -0.65310812 0 1
2.3809361 0.13535964 -0.65795398 0 1
2.3683331 0.13607831 -0.65449381 0 1
2.3707526 0.13765532 -0.65518528 0 1
2.3806868 0.13967498 -0.65795398 0 1
2.3680825 0.1403708 -0.65449381 0 1
2.3730011 0.14210138 -0.65587682 0 1
2.3679111 0.14323199 -0.65449381 0 1
2.3803422 0.14542826 -0.65795398 0 1
2.3677363 0.14609361 -0.65449381 0 1
2.3726506 0.14783543 -0.65587682 0 1
2.3825762 0.14989859 -0.65864545 0 1
2.3674676 0.15038437 -0.65449381 0 1
2.3698778 0.15197533 -0.65518528 0 1
2.35727 0.15259719 -0.65172517 0 1
2.3646901 0.15451182 -0.65380228 0 1
2.3871238 0.15742573 -0.66003108 0 1
2.3870285 0.15886754 -0.66003108 0 1
2.3694077 0.15913361 -0.65518528 0 1
2.3592989 0.1598862 -0.65241665 0 1
2.3792255 0.16268095 -0.65795398 0 1
2.3791268 0.16411799 -0.65795398 0 1
2.3940387 0.1665996 -0.66210562 0 1
2.3714163 0.1664653 -0.65587682 0 1
2.3788254 0.16842999 -0.65795398 0 1
2.3862326 0.17040367 -0.66003108 0 1
2.366111 0.17040324 -0.65449381 0 1
2.3910246 0.17364925 -0.66141403 0 1
2.3734121 0.17381132 -0.65657091 0 1
2.3808053 0.17579979 -0.65864545 0 1
2.3857069 0.17761065 -0.66003108 0 1
2.3930974 0.17961501 -0.66210562 0 1
2.3654778 0.17897888 -0.65449381 0 1
2.3878803 0.18212454 -0.66072255 0 1
2.3927679 0.1839523 -0.66210562 0 1
2.3701472 0.18365338 -0.65587682 0 1
2.3775418 0.18567109 -0.65795398 0 1
2.377429 0.18710774 -0.65795398 0 1
2.3948245 0.1899323 -0.66279978 0 1
2.367198 0.1891814 -0.65518528 0 1
2.3920853 0.19262445 -0.66210562 0 1
2.3669679 0.19204085 -0.65518528 0 1
2.3768532 0.19428866 -0.65795398 0 1
2.3867364 0.19654787 -0.66072255 0 1
2.3766167 0.19716041 -0.65795398 0 1
2.3839993 0.19922346 -0.66003108 0 1
2.3613818 0.19876967 -0.65380228 0 1
2.3787527 0.20167892 -0.65864545 0 1
2.3836343 0.20354359 -0.66003108 0 1
2.3760102 0.20433885 -0.65795398 0 1
2.3758862 0.20577458 -0.65795398 0 1
2.3682613 0.20655541 -0.65587682 0 1
2.3781326 0.20886377 -0.65864545 0 1
2.3755095 0.21007934 -0.65795398 0 1
2.3778784 0.21173707 -0.65864545 0 1
2.3777502 0.21317391 -0.65864545 0 1
2.3951137 0.21618962 -0.66349125 0 1
2.3849888 0.21672806 -0.66072255 0 1
2.3648708 0.21634018 -0.65518528 0 1
2.377228 0.21891923 -0.65864545 0 1
2.3770952 0.22035569 -0.65864545 0 1
2.3669701 0.22085975 -0.65587682 0 1
2.3768272 0.22322771 -0.65864545 0 1
2.361711 0.22324717 -0.65449381 0 1
2.3840508 0.22681183 -0.66072255 0 1
2.3839133 0.22825302 -0.66072255 0 1
2.3887646 0.23017369 -0.66210562 0 1
2.3836358 0.23113328 -0.66072255 0 1
2.3735082 0.23159844 -0.65795398 0 1
2.3635206 0.23062389 -0.65518528 0 1
2.3607457 0.23323368 -0.65449381 0 1
2.3732264 0.23446673 -0.65795398 0 1
2.3855643 0.23714072 -0.66141403 0 1
2.3904181 0.23908141 -0.66279978 0 1
2.3877699 0.24027392 -0.66210562 0 1
2.3701594 0.23994799 -0.65726244 0 1
2.3899808 0.2434144 -0.66279978 0 1
2.3723609 0.24306773 -0.65795398 0 1
2.3672276 0.24398667 -0.65657091 0 1
2.3895359 0.24774466 -0.66279978 0 1
2.3719165 0.24736671 -0.65795398 0 1
2.381747 0.24984688 -0.66072255 0 1
2.3716159 0.25023308 -0.65795398 0 1
2.3789508 0.25246 -0.66003108 0 1
2.3862748 0.25469485 -0.66210562 0 1
2.3811362 0.25560176 -0.66072255 0 1
2.3984435 0.25892571 -0.66556835 0 1
2.3733408 0.25766668 -0.65864545 0 1
2.398129 0.26182351 -0.66556835 0 1
2.383003 0.26162866 -0.66141403 0 1
2.377862 0.2625179 -0.66003108 0 1
2.3826852 0.2645078 -0.66141403 0 1
2.3725517 0.26483431 -0.65864545 0 1
2.379873 0.26710764 -0.66072255 0 1
2.394664 0.27023244 -0.6648742 0 1
2.3820391 0.27026489 -0.66141403 0 1
2.3868654 0.27227348 -0.66279978 0 1
2.4016502 0.27543026 -0.66695142 0 1
2.3840351 0.27486908 -0.66210562 0 1
2.3913472 0.27717647 -0.66418272 0 1
2.3837013 0.27774948 -0.66210562 0 1
2.3785543 0.27860603 -0.66072255 0 1
2.4008071 0.28268394 -0.66695142 0 1
2.3881814 0.28265992 -0.66349125 0 1
2.3805339 0.28321353 -0.66141403 0 1
2.3878381 0.28554526 -0.66349125 0 1
2.3801901 0.28608903 -0.66141403 0 1
2.3850031 0.28813025 -0.66279978 0 1
2.3947902 0.29078034 -0.66556835 0 1
2.3846533 0.29101118 -0.66279978 0 1
2.3869646 0.29275721 -0.66349125 0 1
2.3793151 0.29327786 -0.66141403 0 1
2.3940806 0.29656726 -0.66556835 0 1
2.3914044 0.29770246 -0.6648742 0 1
2.3787796 0.29758999 -0.66141403 0 1
2.3736258 0.29840145 -0.66003108 0 1
2.390861 0.30203584 -0.6648742 0 1
2.380723 0.3022168 -0.66210562 0 1
2.3755674 0.30302107 -0.66072255 0 1
2.3903096 0.30636889 -0.6648742 0 1
2.3801713 0.30653083 -0.66210562 0 1
2.3725286 0.30700409 -0.66003108 0 1
2.3748281 0.3087602 -0.66072255 0 1
2.3646908 0.30889601 -0.65795398 0 1
2.3669887 0.31065038 -0.65864545 0 1
2.3792343 0.31371948 -0.66210562 0 1
2.3591578 0.31252208 -0.65657091 0 1
2.3664217 0.31493953 -0.65864545 0 1
2.3736935 0.31736717 -0.66072255 0 1
2.3809628 0.31980368 -0.66279978 0 1
2.3733082 0.32023498 -0.66072255 0 1
2.3681376 0.32099381 -0.65933692 0 1
2.3654597 0.32208595 -0.65864545 0 1
2.3776903 0.32521552 -0.66210562 0 1
2.3824689 0.32733518 -0.66349125 0 1
2.3797879 0.32843214 -0.66279978 0 1
2.3770971 0.32952401 -0.66210562 0 1
2.364476 0.32923013 -0.65864545 0 1
2.379189 0.33274508 -0.66279978 0 1
2.3839512 0.33487931 -0.66418272 0 1
2.3837485 0.3363198 -0.66418272 0 1
2.3762937 0.33526805 -0.66210562 0 1
2.3885174 0.3384642 -0.66556835 0 1
2.3709242 0.33743212 -0.66072255 0 1
2.3756821 0.33957464 -0.66210562 0 1
2.3779671 0.34136704 -0.66279978 0 1
2.3852024 0.34387618 -0.6648742 0 1
2.3849943 0.34531745 -0.6648742 0 1
2.3847852 0.34675792 -0.6648742 0 1
2.377135 0.34711316 -0.66279978 0 1
2.366996 0.3470929 -0.66003108 0 1
2.3791935 0.35034961 -0.66349125 0 1
2.3864291 0.35288793 -0.66556835 0 1
2.3837268 0.35396037 -0.6648742 0 1
2.376076 0.3542912 -0.66279978 0 1
2.3857856 0.35721347 -0.66556835 0 1
2.373158 0.35678843 -0.66210562 0 1
2.3803861 0.35934559 -0.66418272 0 1
2.3876123 0.36191225 -0.66625988 0 1
2.3675518 0.36033446 -0.66072255 0 1
2.3772535 0.36328155 -0.66349125 0 1
2.3720694 0.36395571 -0.66210562 0 1
2.3668947 0.36462519 -0.66072255 0 1
2.3889854 0.36950561 -0.66695142 0 1
2.3714058 0.36825398 -0.66210562 0 1
2.3910134 0.37277865 -0.66764289 0 1
2.3734448 0.37150875 -0.66279978 0 1
2.3707345 0.37255165 -0.66210562 0 1
2.3705091 0.37398353 -0.66210562 0 1
2.3702826 0.37541527 -0.66210562 0 1
2.3774905 0.37803033 -0.66418272 0 1
2.3698273 0.3782796 -0.66210562 0 1
2.3869407 0.38249055 -0.66695142 0 1
2.3817599 0.38313603 -0.66556835 0 1
2.3716216 0.38297483 -0.66279978 0 1
2.3788118 0.38561165 -0.6648742 0 1
2.3761046 0.38664582 -0.66418272 0 1
2.3733969 0.38767689 -0.66349125 0 1
2.3682063 0.38829839 -0.66210562 0 1
2.3877749 0.39298809 -0.66764289 0 1
2.3801181 0.39320588 -0.66556835 0 1
2.3798804 0.39464343 -0.66556835 0 1
2.3746874 0.39525622 -0.66418272 0 1
2.3794017 0.39751869 -0.66556835 0 1
2.374208 0.39812523 -0.66418272 0 1
2.3739669 0.39956045 -0.66418272 0 1
2.3761966 0.40141177 -0.6648742 0 1
2.3734825 0.40242794 -0.66418272 0 1
2.3682976 0.40302053 -0.66279978 0 1
2.3853569 0.4074069 -0.66764289 0 1
2.3702791 0.40630525 -0.66349125 0 1
2.370033 0.40773806 -0.66349125 0 1
2.3821452 0.4113034 -0.66695142 0 1
2.3695388 0.41060078 -0.66349125 0 1
2.3767073 0.41332248 -0.66556835 0 1
2.3838646 0.4160507 -0.66764289 0 1
2.3836129 0.41749114 -0.66764289 0 1
2.3808916 0.41849753 -0.66695142 0 1
2.3682876 0.41775689 -0.66349125 0 1
2.375448 0.42049956 -0.66556835 0 1
2.3801293 0.42281169 -0.66695142 0 1
2.3699939 0.42248869 -0.66418272 0 1
2.364804 0.42303804 -0.66279978 0 1
2.3719487 0.42579481 -0.6648742 0 1
2.374167 0.42767346 -0.66556835 0 1
2.3837836 0.43089241 -0.66833705 0 1
2.348959 0.4260641 -0.65864545 0 1
2.375854 0.43242484 -0.66625988 0 1
2.378058 0.43431076 -0.66695142 0 1
2.3580537 0.43212926 -0.66141403 0 1
2.3676617 0.43536827 -0.66418272 0 1
2.3723371 0.43771079 -0.66556835 0 1
2.3794658 0.44051239 -0.66764289 0 1
2.3718066 0.44057629 -0.66556835 0 1
2.3789318 0.44338715 -0.66764289 0 1
2.3786635 0.44482392 -0.66764289 0 1
2.3734674 0.44533744 -0.66625988 0 1
2.3781242 0.44769832 -0.66764289 0 1
2.373198 0.44677094 -0.66625988 0 1
2.3655298 0.44680691 -0.66418272 0 1
2.362797 0.44776961 -0.66349125 0 1
2.3723845 0.45107108 -0.66625988 0 1
2.3918262 0.45626473 -0.67179716 0 1
2.3693759 0.45346674 -0.66556835 0 1
2.3740246 0.45584306 -0.66695142 0 1
2.3638947 0.45537862 -0.66418272 0 1
2.3685501 0.45776001 -0.66556835 0 1
2.3584218 0.45728043 -0.66279978 0 1
2.3679953 0.46062213 -0.66556835 0 1
2.3578675 0.46013036 -0.66279978 0 1
2.3748162 0.46492702 -0.66764289 0 1
2.379463 0.46732923 -0.66902852 0 1
2.3742526 0.46779612 -0.66764289 0 1
2.3813553 0.47069061 -0.66972005 0 1
2.3761535 0.47115454 -0.66833705 0 1
2.3660259 0.47063184 -0.66556835 0 1
2.3657415 0.47206086 -0.66556835 0 1
2.3703711 0.47447428 -0.66695142 0 1
2.3774652 0.47738862 -0.66902852 0 1
2.3771763 0.47882518 -0.66902852 0 1
2.3744302 0.47976455 -0.66833705 0 1
2.3692176 0.48020101 -0.66695142 0 1
2.3787611 0.48363125 -0.66972005 0 1
2.380924 0.48557007 -0.67041153 0 1
2.3732636 0.48550111 -0.66833705 0 1
2.3680503 0.48592553 -0.66695142 0 1
2.3653014 0.48685047 -0.66625988 0 1
2.3821986 0.49182841 -0.671103 0 1
2.3671656 0.49021694 -0.66695142 0 1
2.3619609 0.49062711 -0.66556835 0 1
2.3665717 0.49307615 -0.66695142 0 1
2.3638198 0.49399337 -0.66625988 0 1
2.368427 0.49644941 -0.66764289 0 1
2.365674 0.49736422 -0.66695142 0 1
2.3580062 0.49724081 -0.6648742 0 1
2.3626192 0.49970421 -0.66625988 0 1
2.3647687 0.50165194 -0.66695142 0 1
2.3620136 0.50255853 -0.66625988 0 1
2.3788774 0.50764871 -0.671103 0 1
2.3859317 0.51066238 -0.67318016 0 1
2.3610988 0.50683898 -0.66625988 0 1
2.3607922 0.50826502 -0.66625988 0 1
2.3629346 0.51022053 -0.66695142 0 1
2.3577266 0.51058662 -0.66556835 0 1
2.3721228 0.51520568 -0.66972005 0 1
2.3595569 0.51396912 -0.66625988 0 1
2.3616948 0.51592916 -0.66695142 0 1
2.3736334 0.52003956 -0.67041153 0 1
2.3610697 0.51878238 -0.66695142 0 1
2.3607559 0.52020901 -0.66695142 0 1
2.3800383 0.52596623 -0.67248863 0 1
2.3601255 0.52306104 -0.66695142 0 1
2.3696051 0.52666372 -0.66972005 0 1
2.3643937 0.52700496 -0.66833705 0 1
2.3567274 0.52679127 -0.66625988 0 1
2.3637552 0.52986139 -0.66833705 0 1
2.36098 0.53073782 -0.66764289 0 1
2.3631134 0.53271711 -0.66833705 0 1
2.3652358 0.534697 -0.66902852 0 1
2.3795874 0.53945369 -0.67318016 0 1
2.362144 0.53699946 -0.66833705 0 1
2.3544786 0.53675336 -0.66625988 0 1
2.3492579 0.53705609 -0.6648742 0 1
2.3538284 0.53959715 -0.66625988 0 1
2.3461647 0.53933209 -0.66418272 0 1
2.3605111 0.54413265 -0.66833705 0 1
2.3552885 0.54442722 -0.66695142 0 1
2.3500757 0.54471844 -0.66556835 0 1
2.3472958 0.54556823 -0.6648742 0 1
2.349416 0.54755694 -0.66556835 0 1
2.3612969 0.55183119 -0.66902852 0 1
2.3560734 0.55211145 -0.66764289 0 1
2.3410904 0.550093 -0.66349125 0 1
2.3505254 0.55380821 -0.66625988 0 1
2.3602929 0.55610961 -0.66902852 0 1
2.364835 0.55868769 -0.67041153 0 1
2.354732 0.55780399 -0.66764289 0 1
2.3446314 0.55690718 -0.6648742 0 1
2.3467419 0.55890614 -0.66556835 0 1
2.3512797 0.56148845 -0.66695142 0 1
2.3558242 0.56407797 -0.66833705 0 1
2.3481622 0.56374449 -0.66625988 0 1
2.3453844 0.56457609 -0.66556835 0 1
2.3547981 0.56834716 -0.66833705 0 1
2.3593264 0.57094836 -0.66972005 0 1
2.3443573 0.56882566 -0.66556835 0 1
2.339133 0.56905502 -0.66418272 0 1
2.341224 0.57106233 -0.6648742 0 1
2.348192 0.57426488 -0.66695142 0 1
2.335664 0.57269645 -0.66349125 0 1
2.3353176 0.57410705 -0.66349125 0 1
2.33497 0.57551879 -0.66349125 0 1
2.3346219 0.57692897 -0.66349125 0 1
2.3318403 0.57773691 -0.66279978 0 1
2.3412297 0.58156437 -0.66556835 0 1
2.3335726 0.581159 -0.66349125 0 1
2.3405252 0.58439338 -0.66556835 0 1
2.3572006 0.59006977 -0.67041153 0 1
2.3349462 0.58599848 -0.66418272 0 1
2.3540554 0.59230596 -0.66972005 0 1
2.3293762 0.58759266 -0.66279978 0 1
2.3192921 0.58653909 -0.66003108 0 1
2.3335233 0.59163922 -0.66418272 0 1
2.3283074 0.5918138 -0.66279978 0 1
2.3498266 0.59879547 -0.66902852 0 1
2.3373132 0.59711039 -0.66556835 0 1
2.3320868 0.59727597 -0.66418272 0 1
2.3292978 0.5980624 -0.66349125 0 1
2.326509 0.59884447 -0.66279978 0 1
2.3382905 0.60338312 -0.66625988 0 1
2.3452141 0.60668159 -0.66833705 0 1
2.3448472 0.60809797 -0.66833705 0 1
2.3323319 0.60635734 -0.6648742 0 1
2.3319654 0.60776603 -0.6648742 0 1
2.3461661 0.61298066 -0.66902852 0 1
2.3360877 0.61185569 -0.66625988 0 1
2.3381422 0.61390311 -0.66695142 0 1
2.3377705 0.61531651 -0.66695142 0 1
2.3543808 0.62120926 -0.67179716 0 1
2.351573 0.62198788 -0.671103 0 1
2.3342288 0.61890918 -0.66625988 0 1
2.3435528 0.62289727 -0.66902852 0 1
2.3359013 0.62237501 -0.66695142 0 1
2.3476412 0.62702262 -0.67041153 0 1
2.3424199 0.62714404 -0.66902852 0 1
2.3396201 0.62790912 -0.66833705 0 1
2.3368108 0.62866855 -0.66764289 0 1
2.3412793 0.63138878 -0.66902852 0 1
2.3505847 0.63542151 -0.67179716 0 1
2.3332484 0.63224822 -0.66695142 0 1
2.3352847 0.63431436 -0.66764289 0 1
2.347002 0.63901955 -0.671103 0 1
2.3514605 0.64175993 -0.67248863 0 1
2.3438103 0.64119411 -0.67041153 0 1
2.3168156 0.63531423 -0.66279978 0 1
2.3285244 0.6400373 -0.66625988 0 1
2.3353956 0.64344347 -0.66833705 0 1
2.3229084 0.64151275 -0.6648742 0 1
2.3418629 0.64827138 -0.67041153 0 1
2.3318009 0.64700276 -0.66764289 0 1
2.3314097 0.64841163 -0.66764289 0 1
2.3406842 0.6525144 -0.67041153 0 1
2.3282108 0.65055305 -0.66695142 0 1
2.3374803 0.65466684 -0.66972005 0 1
2.3250098 0.65268886 -0.66625988 0 1
2.334275 0.65681112 -0.66902852 0 1
2.3242195 0.65549767 -0.66625988 0 1
2.331068 0.65894938 -0.66833705 0 1
2.3306692 0.66035849 -0.66833705 0 1
2.3234255 0.65830612 -0.66625988 0 1
2.334691 0.66454577 -0.66972005 0 1
2.3274498 0.66248465 -0.66764289 0 1
2.3318787 0.66526884 -0.66902852 0 1
2.3290668 0.66598809 -0.66833705 0 1
2.3214266 0.66532111 -0.66625988 0 1
2.3330781 0.67018634 -0.66972005 0 1
2.320621 0.66812551 -0.66625988 0 1
2.3274505 0.67161447 -0.66833705 0 1
2.3222198 0.67162538 -0.66695142 0 1
2.319406 0.67233068 -0.66625988 0 1
2.3189995 0.67373216 -0.66625988 0 1
2.3113635 0.67302781 -0.66418272 0 1
2.3302233 0.6800465 -0.66972005 0 1
2.3250008 0.68004662 -0.66833705 0 1
2.322175 0.68074363 -0.66764289 0 1
2.3217633 0.68214673 -0.66764289 0 1
2.3285728 0.68567622 -0.66972005 0 1
2.3185337 0.68424213 -0.66695142 0 1
2.3084967 0.68279618 -0.66418272 0 1
2.3201079 0.68775541 -0.66764289 0 1
2.3076699 0.68558562 -0.66418272 0 1
2.3288929 0.6934225 -0.67041153 0 1
2.3188577 0.69195962 -0.66764289 0 1
2.3184392 0.69336009 -0.66764289 0 1
2.3180201 0.69476026 -0.66764289 0 1
2.3151994 0.69544053 -0.66695142 0 1
2.333997 0.70262414 -0.67248863 0 1
2.3239646 0.70113593 -0.66972005 0 1
2.3307471 0.70471835 -0.67179716 0 1
2.3087146 0.69957894 -0.66556835 0 1
2.3346901 0.70899117 -0.67318016 0 1
2.3294659 0.70894176 -0.67179716 0 1
2.3170414 0.70669001 -0.66833705 0 1
2.319011 0.70882255 -0.66902852 0 1
2.3065908 0.70654994 -0.66556835 0 1
2.2989662 0.70573485 -0.66349125 0 1
2.3177223 0.71302474 -0.66902852 0 1
2.3244767 0.71663988 -0.671103 0 1
2.3000782 0.71063936 -0.66418272 0 1
2.3212147 0.71870661 -0.67041153 0 1
2.3135986 0.7178809 -0.66833705 0 1
2.303582 0.71629906 -0.66556835 0 1
2.3079348 0.71918166 -0.66695142 0 1
2.3170788 0.72356677 -0.66972005 0 1
2.3070643 0.72196972 -0.66695142 0 1
2.3090189 0.7241137 -0.66764289 0 1
2.2990074 0.72250021 -0.6648742 0 1
2.3153234 0.7291646 -0.66972005 0 1
2.3053126 0.72754276 -0.66695142 0 1
2.3120511 0.73120517 -0.66902852 0 1
2.3068211 0.73108488 -0.66764289 0 1
2.3016014 0.73096138 -0.66625988 0 1
2.3011591 0.73235208 -0.66625988 0 1
2.3054922 0.7352649 -0.66764289 0 1
2.2978852 0.73436826 -0.66556835 0 1
2.2998281 0.73652118 -0.66625988 0 1
2.3065515 0.74021131 -0.66833705 0 1
2.3013227 0.74006683 -0.66695142 0 1
2.2937093 0.73914808 -0.6648742 0 1
2.3004267 0.74284691 -0.66695142 0 1
2.2952082 0.74269289 -0.66556835 0 1
2.3043048 0.74717563 -0.66833705 0 1
2.3133881 0.75166535 -0.671103 0 1
2.31055 0.75228715 -0.67041153 0 1
2.2981725 0.7497927 -0.66695142 0 1
2.3096395 0.75507778 -0.67041153 0 1
2.2996461 0.75334984 -0.66764289 0 1
2.2968094 0.75395703 -0.66695142 0 1
2.3082671 0.75926286 -0.67041153 0 1
2.3006668 0.75830382 -0.66833705 0 1
2.3002083 0.75969326 -0.66833705 0 1
2.2978191 0.75890422 -0.66764289 0 1
2.2926011 0.75871825 -0.66625988 0 1
2.2897632 0.75931394 -0.66556835 0 1
2.2893043 0.76069683 -0.66556835 0 1
2.2864573 0.76128471 -0.6648742 0 1
2.3216965 0.77457643 -0.67525733 0 1
2.3069475 0.77120531 -0.671103 0 1
2.3041043 0.77180302 -0.67041153 0 1
2.2965097 0.77080208 -0.66833705 0 1
2.2889075 0.7697891 -0.66625988 0 1
2.2955766 0.77357638 -0.66833705 0 1
2.2998583 0.77656639 -0.66972005 0 1
2.3136425 0.78277922 -0.6738717 0 1
2.315552 0.78498435 -0.67456585 0 1
2.3008199 0.7815398 -0.67041153 0 1
2.2932296 0.78050673 -0.66833705 0 1
2.2927575 0.78189236 -0.66833705 0 1
2.2970281 0.78489846 -0.66972005 0 1
2.2989244 0.78709817 -0.67041153 0 1
2.284215 0.78360379 -0.66625988 0 1
2.2908611 0.78743058 -0.66833705 0 1
2.2974944 0.79126257 -0.67041153 0 1
2.2946465 0.79183382 -0.66972005 0 1
2.2823148 0.78912139 -0.66625988 0 1
2.2842059 0.79132086 -0.66695142 0 1
2.2813597 0.79187846 -0.66625988 0 1
2.2785137 0.79243296 -0.66556835 0 1
2.2875104 0.79711241 -0.66833705 0 1
2.2917612 0.80014622 -0.66972005 0 1
2.2841706 0.79904497 -0.66764289 0 1
2.286062 0.80125666 -0.66833705 0 1
2.2808392 0.8009733 -0.66695142 0 1
2.2827187 0.80318385 -0.66764289 0 1
2.2940612 0.80873227 -0.671103 0 1
2.2817466 0.80594081 -0.66764289 0 1
2.2836311 0.80815881 -0.66833705 0 1
2.2878673 0.8112132 -0.66972005 0 1
2.2873764 0.8125962 -0.66972005 0 1
2.3010616 0.81902349 -0.6738717 0 1
2.2769411 0.81198806 -0.66695142 0 1
2.2811797 0.81505293 -0.66833705 0 1
2.287766 0.81896544 -0.67041153 0 1
2.2825522 0.81865478 -0.66902852 0 1
2.282057 0.8200345 -0.66902852 0 1
2.2721195 0.81801349 -0.66625988 0 1
2.2834225 0.82364112 -0.66972005 0 1
2.2805672 0.82416892 -0.66902852 0 1
2.2635543 0.81956673 -0.66418272 0 1
2.2842817 0.8286339 -0.67041153 0 1
2.2696381 0.82487345 -0.66625988 0 1
2.2832792 0.83139271 -0.67041153 0 1
2.2709947 0.82847357 -0.66695142 0 1
2.2704935 0.82984573 -0.66695142 0 1
2.2699916 0.83121753 -0.66695142 0 1
2.2647829 0.83086258 -0.66556835 0 1
2.2642806 0.83223039 -0.66556835 0 1
2.2778986 0.83879763 -0.66972005 0 1
2.2562103 0.83235925 -0.66349125 0 1
2.2721813 0.83981216 -0.66833705 0 1
2.2575531 0.83595568 -0.66418272 0 1
2.2641063 0.83993834 -0.66625988 0 1
2.2565413 0.83868277 -0.66418272 0 1
2.2677875 0.84442192 -0.66764289 0 1
2.2602317 0.84316468 -0.66556835 0 1
2.2531779 0.84053332 -0.66349125 0 1
2.259722 0.84452975 -0.66556835 0 1
2.2474575 0.84149349 -0.66210562 0 1
2.2633934 0.84902012 -0.66695142 0 1
2.2793212 0.85656548 -0.67179716 0 1
2.2576742 0.84998858 -0.66556835 0 1
2.2735853 0.85754716 -0.67041153 0 1
2.273067 0.85892028 -0.67041153 0 1
2.2608185 0.85585356 -0.66695142 0 1
2.2720275 0.86166614 -0.67041153 0 1
2.2597826 0.85858518 -0.66695142 0 1
2.2592635 0.85994995 -0.66695142 0 1
2.2704618 0.86578286 -0.67041153 0 1
2.2793128 0.87073523 -0.67318016 0 1
2.2741046 0.87032062 -0.67179716 0 1
2.2618685 0.86720437 -0.66833705 0 1
2.2683628 0.87126762 -0.67041153 0 1
2.2631578 0.87083739 -0.66902852 0 1
2.2673087 0.87400717 -0.67041153 0 1
2.2738032 0.87808931 -0.67248863 0 1
2.256892 0.87312531 -0.66764289 0 1
2.2516899 0.87267751 -0.66625988 0 1
2.2605169 0.87766999 -0.66902852 0 1
2.2716746 0.88358152 -0.67248863 0 1
2.2571197 0.87949014 -0.66833705 0 1
2.263592 0.88358796 -0.67041153 0 1
2.2607236 0.88404292 -0.66972005 0 1
2.2601891 0.88540888 -0.66972005 0 1
2.2713282 0.89135534 -0.67318016 0 1
2.2544525 0.8863045 -0.66833705 0 1
2.2679181 0.89318007 -0.67248863 0 1
2.2650459 0.8936311 -0.67179716 0 1
2.2738388 0.89868766 -0.67456585 0 1
2.2523038 0.89175045 -0.66833705 0 1
2.2704122 0.90050679 -0.6738717 0 1
2.2652094 0.9000271 -0.67248863 0 1
2.2646649 0.90139621 -0.67248863 0 1
2.2524705 0.89811891 -0.66902852 0 1
2.2356167 0.89296436 -0.66418272 0 1
2.2653546 0.90643007 -0.67318016 0 1
2.2485127 0.90126717 -0.66833705 0 1
2.254945 0.90542787 -0.67041153 0 1
2.2427623 0.90210968 -0.66695142 0 1
2.2561746 0.90908808 -0.671103 0 1
2.2556248 0.91045129 -0.671103 0 1
2.2504272 0.90993446 -0.66972005 0 1
2.2428992 0.90846711 -0.66764289 0 1
2.2446809 0.91076887 -0.66833705 0 1
2.2627144 0.91967803 -0.6738717 0 1
2.2505429 0.9163152 -0.67041153 0 1
2.2476683 0.91672844 -0.66972005 0 1
2.2447937 0.91713786 -0.66902852 0 1
2.2511978 0.92134285 -0.671103 0 1
2.2529688 0.92365676 -0.67179716 0 1
2.2524104 0.92501742 -0.67179716 0 1
2.2472067 0.92446697 -0.67041153 0 1
2.2466476 0.9258247 -0.67041153 0 1
2.2484047 0.92813849 -0.671103 0 1
2.2478433 0.929497 -0.671103 0 1
2.2496059 0.93181729 -0.67179716 0 1
2.2397738 0.92932999 -0.66902852 0 1
2.2484784 0.93453473 -0.67179716 0 1
2.2548549 0.93878335 -0.6738717 0 1
2.2403986 0.93435359 -0.66972005 0 1
2.2514062 0.94054097 -0.67318016 0 1
2.2577827 0.94480693 -0.67525733 0 1
2.2456453 0.94132209 -0.67179716 0 1
2.2427561 0.94170558 -0.671103 0 1
2.2583768 0.94986945 -0.6759488 0 1
2.2346873 0.94149536 -0.66902852 0 1
2.2502913 0.94967026 -0.6738717 0 1
2.2520347 0.95200896 -0.67456585 0 1
2.2537668 0.95434749 -0.67525733 0 1
2.2462587 0.95276868 -0.67318016 0 1
2.2479899 0.95510542 -0.6738717 0 1
2.2497272 0.95744896 -0.67456585 0 1
2.2399173 0.95487225 -0.67179716 0 1
2.2439501 0.95819354 -0.67318016 0 1
2.2364483 0.95658922 -0.671103 0 1
2.2381828 0.95893067 -0.67179716 0 1
2.2422094 0.96225983 -0.67318016 0 1
2.2416277 0.96361399 -0.67318016 0 1
2.2387433 0.96397656 -0.67248863 0 1
2.2341306 0.9619903 -0.671103 0 1
2.2421784 0.96866947 -0.6738717 0 1
2.244488 0.96966732 -0.67456585 0 1
2.2323833 0.96603823 -0.671103 0 1
2.2433147 0.97237861 -0.67456585 0 1
2.2381201 0.97173315 -0.67318016 0 1
2.2536387 0.98009062 -0.67802596 0 1
2.2392421 0.9754383 -0.6738717 0 1
2.2363551 0.97578818 -0.67318016 0 1
2.2380621 0.97814262 -0.6738717 0 1
2.2328784 0.97748458 -0.67248863 0 1
2.2368784 0.9808467 -0.6738717 0 1
2.2431781 0.98522568 -0.6759488 0 1
2.2425828 0.98658031 -0.6759488 0 1
2.2328033 0.98388821 -0.67318016 0 1
2.2322085 0.98523724 -0.67318016 0 1
2.2430832 0.99165702 -0.67664027 0 1
2.2356088 0.98996723 -0.67456585 0 1
2.2212458 0.98521292 -0.67041153 0 1
2.2275307 0.98961103 -0.67248863 0 1
2.2246425 0.98993731 -0.67179716 0 1
2.2263331 0.99230236 -0.67248863 0 1
2.2463486 1.0028504 -0.67871749 0 1
2.2320054 0.99806505 -0.67456585 0 1
2.2359767 1.0014619 -0.6759488 0 1
2.2193465 0.99562329 -0.671103 0 1
2.2256119 1.0000492 -0.67318016 0 1
2.2318723 1.0044844 -0.67525733 0 1
2.2449834 1.0120164 -0.67940897 0 1
2.2146492 0.99995267 -0.67041153 0 1
2.2300482 1.0085275 -0.67525733 0 1
2.2317216 1.0109085 -0.6759488 0 1
2.2219718 1.0081114 -0.67318016 0 1
2.2282166 1.012568 -0.67525733 0 1
2.2253234 1.012876 -0.67456585 0 1
2.2384033 1.0204619 -0.67871749 0 1
2.2218094 1.0145184 -0.6738717 0 1
2.2166371 1.0137765 -0.67248863 0 1
2.2228692 1.0182506 -0.67456585 0 1
2.2131326 1.0154082 -0.67179716 0 1
2.2284694 1.0240754 -0.67664027 0 1
2.2232969 1.0233253 -0.67525733 0 1
2.2226777 1.0246692 -0.67525733 0 1
2.2106721 1.020754 -0.67179716 0 1
2.2214384 1.0273534 -0.67525733 0 1
2.2185433 1.0276417 -0.67456585 0 1
2.2088187 1.0247587 -0.67179716 0 1
2.2172997 1.0303221 -0.67456585 0 1
2.2234936 1.0348344 -0.67664027 0 1
2.2092292 1.0298196 -0.67248863 0 1
2.208607 1.0311537 -0.67248863 0 1
2.205713 1.0314258 -0.67179716 0 1
2.202811 1.0316921 -0.671103 0 1
2.2112725 1.0372841 -0.6738717 0 1
2.2015626 1.0343529 -0.671103 0 1
2.2077496 1.038888 -0.67318016 0 1
2.213932 1.0434309 -0.67525733 0 1
2.217834 1.046909 -0.67664027 0 1
2.1967909 1.0385988 -0.67041153 0 1
2.2097719 1.0463701 -0.67456585 0 1
2.2023368 1.0444784 -0.67248863 0 1
2.2039692 1.0468838 -0.67318016 0 1
2.1942747 1.0439038 -0.67041153 0 1
2.2072365 1.0517071 -0.67456585 0 1
2.2111249 1.0551989 -0.6759488 0 1
2.1969101 1.0500457 -0.67179716 0 1
2.1985362 1.0524547 -0.67248863 0 1
2.1956401 1.0526989 -0.67179716 0 1
2.1927354 1.0529369 -0.671103 0 1
2.1988838 1.0575241 -0.67318016 0 1
2.1959865 1.0577645 -0.67248863 0 1
2.1930895 1.0580022 -0.67179716 0 1
2.2021279 1.0623626 -0.67456585 0 1
2.1992204 1.0625979 -0.6738717 0 1
2.1963215 1.0628353 -0.67318016 0 1
2.2024541 1.0674454 -0.67525733 0 1
2.2130916 1.0742521 -0.67871749 0 1
2.2034168 1.0712016 -0.6759488 0 1
2.1937468 1.0681392 -0.67318016 0 1
2.1953537 1.0705639 -0.6738717 0 1
2.1992195 1.0740937 -0.67525733 0 1
2.1827927 1.0677043 -0.67041153 0 1
2.2024219 1.0789549 -0.67664027 0 1
2.2107785 1.0847057 -0.67940897 0 1
2.1966174 1.0794051 -0.67525733 0 1
2.2027197 1.0840566 -0.67733443 0 1
2.1930635 1.0809504 -0.67456585 0 1
2.1879067 1.0800515 -0.67318016 0 1
2.1984963 1.0869312 -0.67664027 0 1
2.1978388 1.0882601 -0.67664027 0 1
2.1881909 1.085129 -0.6738717 0 1
2.1875348 1.0864511 -0.6738717 0 1
2.18239 1.0855397 -0.67248863 0 1
2.1929593 1.0924498 -0.6759488 0 1
2.1945417 1.0948937 -0.67664027 0 1
2.1826608 1.0906138 -0.67318016 0 1
2.1887341 1.0953019 -0.67525733 0 1
2.1925535 1.0988697 -0.67664027 0 1
2.1851695 1.0968208 -0.67456585 0 1
2.1867456 1.0992662 -0.67525733 0 1
2.1905582 1.102842 -0.67664027 0 1
2.1809313 1.099647 -0.6738717 0 1
2.1757917 1.0987051 -0.67248863 0 1
2.1840827 1.1045479 -0.67525733 0 1
2.1856511 1.1069993 -0.6759488 0 1
2.1782672 1.1049147 -0.6738717 0 1
2.1820772 1.1085049 -0.67525733 0 1
2.194819 1.1166461 -0.67940897 0 1
2.1762612 1.1088605 -0.6738717 0 1
2.1845295 1.114736 -0.67664027 0 1
2.1816235 1.1149158 -0.6759488 0 1
2.1764874 1.1139495 -0.67456585 0 1
2.180275 1.1175504 -0.6759488 0 1
2.1595147 1.1085575 -0.66972005 0 1
2.1967726 1.1293604 -0.68148613 0 1
2.1849394 1.1249467 -0.67802596 0 1
2.186487 1.1274155 -0.67871749 0 1
2.1858056 1.128736 -0.67871749 0 1
2.1873498 1.1312073 -0.67940897 0 1
2.1777549 1.1279137 -0.67664027 0 1
2.1793063 1.1303878 -0.67733443 0 1
2.1852953 1.1351707 -0.67940897 0 1
2.1712599 1.1295457 -0.67525733 0 1
2.1705773 1.130857 -0.67525733 0 1
2.1832349 1.1391286 -0.67940897 0 1
2.1714306 1.1346395 -0.6759488 0 1
2.1707447 1.1359514 -0.6759488 0 1
2.1789465 1.1419212 -0.67871749 0 1
2.1804755 1.1444018 -0.67940897 0 1
2.1797838 1.1457186 -0.67940897 0 1
2.1724374 1.1435331 -0.67733443 0 1
2.1761806 1.1471834 -0.67871749 0 1
2.1777031 1.1496682 -0.67940897 0 1
2.1659212 1.1451215 -0.6759488 0 1
2.174098 1.1511253 -0.67871749 0 1
2.1734023 1.1524383 -0.67871749 0 1
2.1749187 1.1549274 -0.67940897 0 1
2.1852939 1.1621295 -0.68286914 0 1
2.1868117 1.1646323 -0.68356323 0 1
2.1683991 1.1565081 -0.67802596 0 1
2.1699109 1.1589985 -0.67871749 0 1
2.1721218 1.1601793 -0.67940897 0 1
2.1669998 1.1591278 -0.67802596 0 1
2.1640899 1.1592529 -0.67733443 0 1
2.1722324 1.1653038 -0.68010312 0 1
2.1671035 1.1642394 -0.67871749 0 1
2.1641927 1.1643605 -0.67802596 0 1
2.1612818 1.1644799 -0.67733443 0 1
2.1738212 1.1729306 -0.68148613 0 1
2.1687024 1.1718605 -0.68010312 0 1
2.1613727 1.169587 -0.67802596 0 1
2.1694884 1.1756741 -0.6807946 0 1
2.1643634 1.1745893 -0.67940897 0 1
2.168066 1.1782951 -0.6807946 0 1
2.1739583 1.1831989 -0.68286914 0 1
2.1688418 1.1821128 -0.68148613 0 1
2.1593187 1.1786153 -0.67871749 0 1
2.1652122 1.1835308 -0.6807946 0 1
2.1578927 1.1812241 -0.67871749 0 1
2.1659784 1.1873511 -0.68148613 0 1
2.1718605 1.192282 -0.68356323 0 1
2.1601498 1.1875519 -0.68010312 0 1
2.1660185 1.1924832 -0.6821776 0 1
2.1674926 1.1950021 -0.68286914 0 1
2.1579936 1.1914659 -0.68010312 0 1
2.1572735 1.1927691 -0.68010312 0 1
2.1477733 1.1892108 -0.67733443 0 1
2.1536303 1.1941546 -0.67940897 0 1
2.157299 1.197894 -0.6807946 0 1
2.1543849 1.1979787 -0.68010312 0 1
2.1383154 1.1907352 -0.67525733 0 1
2.1485493 1.1981349 -0.67871749 0 1
2.1653481 1.209218 -0.68425477 0 1
2.1558583 1.2056286 -0.68148613 0 1
2.1573164 1.2081553 -0.6821776 0 1
2.1565857 1.2094587 -0.6821776 0 1
2.1492991 1.2070791 -0.68010312 0 1
2.150754 1.2096057 -0.6807946 0 1
2.1543901 1.2133654 -0.6821776 0 1
2.1449161 1.2097368 -0.67940897 0 1
2.1551054 1.2171998 -0.68286914 0 1
2.1565592 1.2197404 -0.68356323 0 1
2.1536331 1.2198029 -0.68286914 0 1
2.1463549 1.2173949 -0.6807946 0 1
2.1434398 1.2174534 -0.68010312 0 1
2.1623282 1.2299098 -0.68633193 0 1
2.1506789 1.2250037 -0.68286914 0 1
2.1608405 1.2325217 -0.68633193 0 1
2.1579106 1.2325792 -0.68563777 0 1
2.1419277 1.2251672 -0.6807946 0 1
2.1411874 1.2264606 -0.6807946 0 1
2.1447945 1.2302479 -0.6821776 0 1
2.1592808 1.2402918 -0.6870234 0 1
2.1585312 1.2415957 -0.6870234 0 1
2.1534283 1.2403938 -0.68563777 0 1
2.1570292 1.2442034 -0.6870234 0 1
2.1454172 1.2392331 -0.68356323 0 1
2.1316345 1.2329895 -0.67940897 0 1
2.1569395 1.2493669 -0.68771487 0 1
2.1475036 1.245635 -0.68494624 0 1
2.1554279 1.2519727 -0.68771487 0 1
